ply
		format ascii 1.0
		element vertex 630
		property float x
		property float y
		property float z
		property uchar blue
		property uchar green
		property uchar red
		end_header
		-1094.006538 -362.805176 3369.522858 114 148 186
-1056.805611 -335.009599 3273.426437 78 107 139
-1277.980900 -445.159245 4038.119507 42 75 107
-1312.469673 -628.422213 4256.934738 85 107 128
-1343.858528 -851.731968 4360.990143 124 136 146
-1269.418526 -667.093706 4491.582870 141 160 178
-1272.826672 -664.783764 4535.136795 61 89 118
-940.863800 -320.797753 3410.778809 213 234 239
-1050.572968 -418.442726 3963.899231 87 122 166
-858.023262 -302.032113 3352.641678 50 82 124
-1045.675087 -423.556376 4055.315018 96 130 167
-1015.558052 -381.646609 4042.229462 184 210 234
-1333.593941 -994.969845 5397.797775 127 140 149
-97.420156 -106.189954 644.012547 186 195 204
-1090.954399 -933.122444 5124.381256 195 206 216
-1287.005138 -1063.507366 6174.008942 108 119 129
-1146.038723 -616.215420 6155.960846 187 226 234
-120.314384 14.796218 866.648960 99 122 143
-1055.320263 -665.429401 6501.528168 78 117 152
-114.670885 4.334601 959.812927 161 186 212
-1272.169685 -1117.598248 8440.413666 58 90 124
-94.836837 18.297115 853.528500 145 170 190
-965.070438 -690.665245 6670.295715 60 78 97
-101.013446 10.236565 913.049889 167 190 209
-86.507177 3.405345 995.213604 134 165 202
-74.431789 16.667613 903.977203 148 185 221
-76.114911 -4.153282 1044.698143 82 104 125
-970.726871 -1343.752193 10813.694000 74 114 138
-73.149407 -4.524186 1063.587189 126 161 196
-872.203445 -1166.992474 10432.155609 24 53 83
-44.717827 25.599754 858.180618 87 114 141
-43.391117 24.804384 861.275578 157 187 218
-1031.471634 -1910.724258 14590.959167 66 100 136
-47.439581 10.268155 971.462822 137 168 199
-32.174543 -12.270662 1117.997932 95 121 146
-439.208221 -1475.202560 11639.077759 75 108 140
-16.770729 4.504601 1002.711010 70 88 116
-13.514623 21.477833 893.227386 54 85 116
-11.702703 21.495433 894.501495 157 194 228
-101.723039 -1438.602924 10466.929626 196 208 220
1.801668 11.871903 953.598309 145 176 212
2.426539 10.390312 956.057167 62 86 118
2.426539 10.390312 956.057167 62 86 118
-25.580996 -1495.304298 11317.733765 109 124 134
-25.580996 -1495.304298 11317.733765 109 124 134
274.446845 -1589.047909 13219.410706 75 102 132
300.382781 -1394.055843 11508.243561 61 98 127
324.625134 -1672.501183 12312.788391 236 243 248
332.861209 -1530.925560 11532.688141 69 98 104
386.969733 -1533.143425 12918.853760 141 167 190
381.770349 -1465.167332 12000.157928 70 95 124
472.000027 -1608.254433 12503.841400 135 148 157
472.000027 -1608.254433 12503.841400 135 148 157
430.143309 -1575.952721 11176.702118 199 214 225
14.480664 -54.868525 406.547022 67 79 94
506.041765 -1647.939110 11687.973785 194 213 224
506.041765 -1647.939110 11687.973785 194 213 224
37.047175 13.617729 918.781185 45 72 102
616.621447 -1779.317284 13467.074585 40 62 68
550.363111 -1679.004478 12002.471924 64 89 98
550.363111 -1679.004478 12002.471924 64 89 98
726.859140 -1862.354088 14846.038818 42 54 78
617.288303 -1728.142929 12248.904419 192 210 222
690.664816 -1632.710838 13143.711853 143 161 188
549.897575 -1437.390804 10473.670197 53 79 89
733.376312 -1685.115623 13855.551147 120 140 166
699.532890 -1692.255783 12333.418274 193 209 225
747.785521 -1804.585457 13141.310120 193 209 225
703.195906 -1483.711910 11645.090485 45 65 88
703.195906 -1483.711910 11645.090485 45 65 88
800.452137 -1666.496658 12768.913269 118 134 145
754.513502 -1421.128845 11374.800873 127 151 176
673.655701 -1153.389740 10070.496368 86 109 129
824.433041 -1428.096294 12152.822876 136 156 181
978.287125 -1717.221451 13498.237610 36 59 78
676.185226 -1044.462585 9058.740234 46 68 95
931.997681 -1465.861702 11950.461578 37 63 89
858.306694 -1272.082138 10885.719299 68 94 123
56.566018 25.165668 815.997124 78 106 137
997.206116 -1462.667942 12095.484924 188 216 244
960.832119 -1468.562317 11542.872620 17 33 54
830.979252 -1156.099129 9853.092194 127 162 196
1066.760826 -1590.514565 12393.778229 176 202 222
98.159629 -26.263398 1228.443718 97 126 156
1070.859528 -1553.657722 11791.648865 28 46 65
1104.156017 -1581.340694 11781.718445 91 108 126
1122.554398 -1543.094254 11838.861847 157 186 212
1122.554398 -1543.094254 11838.861847 157 186 212
929.234886 -1152.122307 9543.515778 87 116 147
1189.187050 -1564.063835 12075.893402 68 97 119
1179.968452 -1461.176491 11341.767883 121 153 187
1179.968452 -1461.176491 11341.767883 121 153 187
1296.651554 -1610.548401 11951.348114 55 84 116
1296.651554 -1610.548401 11951.348114 55 84 116
1055.652332 -1150.857544 9541.783142 112 147 189
1116.146088 -1350.946903 9588.584900 191 207 224
1099.804592 -1290.858650 9314.266968 67 96 124
1070.198154 -1111.038780 9008.336639 101 141 187
446.110582 -356.819868 3815.949631 141 177 210
1264.236355 -1460.058594 10370.696259 36 59 85
399.299884 -304.218745 3328.812408 42 70 98
564.350700 -459.061241 4533.376312 16 34 54
564.350700 -459.061241 4533.376312 16 34 54
414.654636 -288.665795 3186.997032 73 106 136
414.654636 -288.665795 3186.997032 73 106 136
423.318672 -283.312201 3204.219437 137 166 196
460.714102 -291.305757 3212.311172 136 162 192
1227.211761 -1041.473103 8062.223053 75 104 130
471.298981 -288.503408 3115.535164 145 172 198
471.298981 -288.503408 3115.535164 145 172 198
1289.855480 -932.512188 8200.891876 169 195 219
492.225647 -304.521847 3157.674408 149 181 211
782.473040 -525.144005 4883.908081 89 110 131
554.458284 -347.445941 3483.541489 91 125 156
520.764065 -318.037152 3212.981033 55 81 107
496.355152 -276.621938 3038.624573 152 178 205
491.419697 -256.010509 3003.937721 84 114 143
551.144457 -304.502869 3191.990662 136 164 191
551.144457 -304.502869 3191.990662 136 164 191
533.272839 -274.142694 3043.327522 200 211 223
539.923334 -302.903748 3077.435493 173 199 226
539.923334 -302.903748 3077.435493 173 199 226
968.546391 -609.935427 5355.136871 34 57 89
579.259348 -283.791518 3130.142975 120 152 184
579.259348 -283.791518 3130.142975 120 152 184
556.081152 -257.337332 2991.283417 8 14 39
463.100290 -191.158700 2450.964355 171 200 223
924.228096 -797.849321 4574.603271 76 81 98
610.097122 -280.392408 3015.214157 132 171 212
786.120224 -385.947967 3764.134979 125 155 187
1394.525433 -826.176643 6519.865417 99 129 159
628.413773 -293.386292 3015.416336 48 78 109
526.499319 -214.621496 2539.345360 58 82 108
829.119205 -395.593572 3803.685379 56 76 98
635.322475 -270.526743 2948.953819 54 86 120
1616.115952 -1074.689865 7199.095917 193 205 218
810.614204 -410.292721 3688.378525 151 174 198
810.614204 -410.292721 3688.378525 151 174 198
635.042048 -268.473434 2912.623596 133 161 187
609.307051 -236.111522 2733.326912 22 57 87
636.385441 -256.163669 2836.713600 194 218 232
650.105238 -294.959831 2870.856094 141 174 205
840.839195 -398.039961 3644.496155 62 84 108
840.839195 -398.039961 3644.496155 62 84 108
665.436077 -277.277279 2900.939941 29 53 78
633.297920 -249.351978 2757.696533 97 117 139
437.210417 -116.570735 1883.671761 82 109 139
576.026392 -214.308572 2370.626831 138 163 190
576.026392 -214.308572 2370.626831 138 163 190
838.096523 -367.844868 3364.182663 60 88 119
857.848358 -370.064998 3327.876282 31 57 89
869.437695 -390.723419 3361.160278 137 170 207
507.974529 -142.311275 2026.898384 130 157 184
1240.572739 -693.499756 4697.267151 194 208 222
565.815544 -176.136482 2211.542892 171 197 220
1364.848137 -751.380777 5061.797714 192 204 219
1174.054146 -617.017555 4376.385498 111 135 157
1207.615566 -618.690252 4430.632019 100 138 176
577.078009 -176.278746 2186.683846 63 82 98
1167.327213 -571.887636 4236.304474 100 136 177
480.616999 -110.210562 1824.990463 127 151 178
1148.421192 -543.928242 4108.437347 28 58 95
1148.421192 -543.928242 4108.437347 28 58 95
1265.760708 -669.072533 4428.327942 165 193 219
1040.302753 -440.164042 3668.981934 49 70 96
1245.771694 -664.022255 4331.112671 104 131 161
1285.502052 -688.997221 4428.815460 189 207 223
1267.184448 -665.800810 4349.484253 104 137 171
533.283138 -126.760483 1932.534027 71 94 122
567.896509 -146.783948 2046.357536 121 149 183
652.608538 -228.091717 2272.833824 120 155 186
613.650370 -175.718927 2147.386742 46 69 92
581.977987 -146.993506 2035.239983 160 207 236
655.347204 -230.861259 2259.461975 16 38 66
1311.640549 -655.685234 4313.272858 185 205 226
628.732014 -196.711850 2149.796295 31 59 89
645.104170 -211.123347 2196.706009 163 185 207
610.279560 -161.444211 2078.746223 56 78 99
689.037228 -268.357730 2323.889732 142 175 212
638.721275 -196.554303 2159.235382 72 104 135
617.158937 -167.530882 2090.524101 101 123 146
692.874193 -271.831894 2318.395233 62 87 116
435.727119 -67.871559 1522.958183 81 109 140
537.299442 -115.171635 1832.698631 107 129 152
697.721815 -268.289804 2311.594391 105 129 160
697.721815 -268.289804 2311.594391 105 129 160
559.333181 -128.938901 1882.048988 238 252 253
1044.012833 -435.658503 3356.811142 45 71 110
545.398474 -135.551333 1826.953888 63 86 111
1084.570885 -469.276953 3448.918533 46 79 118
446.328211 -71.501911 1524.219894 61 96 129
545.121908 -111.159635 1821.895027 127 156 185
593.616486 -158.036256 1956.961060 74 93 114
549.785042 -115.205419 1827.124023 37 59 81
694.532681 -246.830916 2261.270523 22 42 65
684.999466 -230.048370 2224.560356 103 122 148
1085.638905 -442.780256 3409.269333 93 128 166
544.908476 -118.865609 1799.996185 241 252 252
452.880478 -69.570380 1519.202232 53 88 119
673.186731 -206.905174 2145.091820 73 91 111
456.846237 -66.218776 1507.046127 148 180 210
1132.730770 -471.814013 3446.059418 44 81 131
626.428413 -151.151192 1978.697014 55 74 94
691.958904 -226.552224 2166.262054 141 172 202
629.977465 -147.095716 1984.736824 52 71 96
667.129993 -193.388069 2089.676476 102 129 160
1231.123734 -559.465122 3698.605728 185 199 212
656.952095 -177.492011 2047.607613 21 45 76
1238.629246 -540.143061 3652.927780 114 144 174
1157.060814 -477.726030 3413.076019 38 72 111
1236.442661 -539.769602 3588.771439 116 143 172
1158.873272 -462.441778 3342.837143 124 159 200
1166.359615 -462.824154 3318.902206 133 171 215
1233.767700 -503.427076 3477.619171 63 102 143
1251.083565 -506.667328 3489.639282 76 114 153
-1303.805065 -616.552258 3881.175995 137 157 171
-1081.761837 -361.021829 3287.947083 66 97 130
-1103.778172 -373.953104 3350.726700 104 139 178
-1315.745831 -811.233044 3938.890839 125 136 145
-1315.745831 -811.233044 3938.890839 125 136 145
-1308.248806 -807.593727 3919.666672 125 136 145
-1292.694378 -618.050241 3958.977890 64 83 101
-1306.721306 -584.873962 4003.619766 93 121 156
-1282.433128 -781.306267 3939.296722 129 138 148
-1255.535507 -582.631969 3922.629929 36 57 81
-1272.109985 -475.363398 4000.666046 51 79 118
-1278.842545 -793.708801 4031.649399 126 137 146
-1280.382252 -802.601051 4100.204468 125 136 145
-1274.683475 -602.323008 4119.293213 120 138 157
-943.969536 -283.768177 3238.170624 195 213 236
-1020.370388 -353.047848 3659.585190 76 105 140
-944.510841 -322.895741 3421.274185 233 246 251
-903.181553 -315.482664 3339.728546 52 88 130
-1264.177704 -674.799490 4540.394974 140 161 175
-892.854500 -301.672435 3319.461060 146 180 221
-892.854500 -301.672435 3319.461060 146 180 221
-859.506989 -319.716907 3239.856720 150 183 224
-1264.091396 -684.498358 4616.744232 140 157 172
-1282.303810 -723.140526 4896.125412 141 160 175
-834.430218 -298.163152 3323.627090 89 124 161
-160.033226 3.562603 952.241421 93 122 153
-990.020180 -361.898875 3918.997192 81 110 147
-208.028412 -20.229171 1137.501717 189 212 231
-1279.155827 -936.830139 5043.371201 139 150 160
-919.544506 -362.706423 3936.302185 178 202 222
-1268.437195 -775.352716 5298.389816 144 164 176
-1243.141365 -995.109367 5512.836456 119 130 140
-1201.471710 -958.864689 5409.267807 194 205 215
-1261.073971 -793.029737 5755.392075 36 63 94
-138.093245 -4.762758 1021.727085 158 192 222
-138.093245 -4.762758 1021.727085 158 192 222
-1127.207565 -541.999626 5618.129349 109 148 183
-1072.606564 -542.327785 5625.542068 148 174 200
-1181.408405 -612.423563 6171.302414 36 82 124
-115.908575 2.343645 970.844841 174 201 224
-1126.414871 -606.546307 6057.860184 129 201 219
-144.494128 -20.271321 1138.272572 118 145 175
-1069.458580 -586.746979 5943.217087 32 53 70
-118.146765 -9.515374 1053.808117 107 127 148
-141.620088 -30.489546 1216.684437 170 197 226
-136.566961 -28.683889 1199.353218 54 79 105
-991.566277 -612.425327 6241.803741 199 228 244
-97.520882 2.115166 974.804878 138 160 181
-133.774436 -27.963531 1194.731236 178 201 225
-90.962887 2.967000 966.795921 67 85 108
-1036.185551 -765.541124 6938.619995 87 117 149
-1070.867348 -754.588604 7171.630859 78 116 147
-1070.867348 -754.588604 7171.630859 78 116 147
-88.459200 1.848509 979.018211 72 85 107
-86.715728 1.278079 980.998802 76 96 116
-980.246735 -848.817539 7333.615875 118 155 189
-75.933498 -3.289646 1028.577232 133 163 193
-1011.224937 -1261.795712 9604.624939 71 99 130
-70.823967 -9.558792 1058.579350 153 176 195
-67.456722 -9.354623 1055.136967 145 166 185
-898.528194 -1024.268723 9971.074677 134 163 197
-47.482231 5.886342 960.189819 157 190 221
-43.451491 7.170419 962.179089 89 114 147
-46.527439 1.300362 1001.482296 94 122 153
-50.368524 -9.267307 1058.340263 152 180 207
13.255858 -34.924167 243.507028 147 160 170
-45.528811 -11.633878 1070.756435 95 116 134
-40.081900 -7.982878 1054.614925 98 125 155
-32.031214 -3.032162 1014.604187 60 87 121
-28.185490 3.395464 975.602913 76 100 130
-19.762129 4.994117 969.446945 82 104 131
-16.256663 2.562661 981.289005 65 78 96
-12.550880 -3.479284 1010.325432 131 165 197
-11.655046 -1.114846 1001.959705 129 162 194
-12.183074 -6.074280 1028.365898 66 91 122
-7.460541 -14.822197 1099.335098 167 197 230
-5.248910 -0.517040 996.225643 88 116 146
0.343974 0.172891 985.890007 84 111 146
3.216363 -2.208131 997.771454 70 94 126
6.271393 -26.998881 1171.355343 82 107 133
14.220276 -1.050797 988.065243 132 162 194
17.391160 -15.465407 1091.857433 154 187 221
38.351581 -112.969208 1845.215607 118 146 176
23.141018 2.350906 960.043335 52 72 96
23.141018 2.350906 960.043335 52 72 96
30.411777 -27.507478 1175.969028 150 183 217
466.549492 -1718.226051 12427.061462 61 87 95
366.513777 -1258.080673 9757.292938 135 147 157
515.712833 -1678.937531 11906.538391 197 217 227
33.771473 -1.446568 991.234875 138 170 207
739.645481 -1641.958046 12563.922119 115 132 142
44.419450 0.292383 968.312740 76 101 130
51.201785 -12.318783 1060.427094 141 171 205
48.983732 -1.657759 982.959747 136 170 201
94.152516 -80.936623 1589.747524 140 171 208
53.381097 -8.692877 1028.662205 140 174 204
891.289139 -1237.328720 10541.278076 132 162 196
465.388680 -548.932791 5283.325958 114 134 157
968.157768 -1326.310635 10569.812012 160 192 221
1122.226906 -1543.123913 11840.989685 157 187 213
85.887152 -27.486131 1182.375240 99 122 148
1085.651398 -1456.412983 10795.923615 88 109 129
763.195753 -842.204475 7467.024231 149 177 205
1282.505322 -1593.714619 11833.951569 64 94 127
1171.727276 -1334.432316 10156.327820 50 79 114
1295.209312 -1425.469112 10751.545715 140 174 208
1199.768353 -1387.768078 9863.772583 27 49 77
433.106518 -350.437665 3715.426636 145 183 216
100.479066 -18.099140 1115.187645 92 119 143
1384.112930 -1488.294506 10972.303772 63 85 101
1656.946373 -1808.529472 12858.160400 190 206 224
533.097553 -436.776686 4300.217438 17 35 55
546.500301 -433.799982 4361.472702 114 132 154
1160.666561 -1127.046490 8793.285370 107 137 179
538.698673 -432.924604 4251.640320 32 47 67
538.698673 -432.924604 4251.640320 32 47 67
406.934261 -284.304667 3133.033562 51 80 110
1306.480026 -1067.652702 8929.986572 41 64 92
129.530036 -28.257465 1172.127533 115 145 176
113.544250 -13.309895 1065.429306 130 159 188
113.544250 -13.309895 1065.429306 130 159 188
1328.957081 -1124.274635 8703.157806 74 101 128
545.277786 -365.007591 3688.266373 123 151 178
1618.340302 -1326.154518 10057.920074 90 106 119
460.540009 -283.535480 3050.789070 143 170 195
463.582993 -274.651694 3043.927574 45 68 96
482.431841 -294.425797 3127.508736 54 78 109
2353.040123 -1796.880722 13887.019348 131 156 185
488.142633 -286.539865 3139.856911 144 173 199
466.676378 -272.192597 3017.222404 160 191 218
139.783502 -21.129571 1131.757545 97 125 156
1288.001823 -861.691952 7257.404327 47 68 89
493.356895 -263.181663 2981.125832 36 65 91
532.208300 -292.330217 3110.504913 42 72 99
117.119730 3.113937 940.211678 79 98 121
542.995214 -304.842877 3091.791534 164 192 222
129.728937 -2.058871 980.886269 148 175 205
542.880249 -251.808763 2977.884865 49 78 109
543.204641 -241.946244 2965.639687 122 149 181
523.262930 -231.846094 2836.397934 131 159 188
1421.494198 -957.146740 6909.387207 65 90 114
575.898266 -270.205235 2991.573143 23 51 79
603.539371 -282.486677 3018.792725 54 90 127
574.770832 -252.466369 2886.674118 150 184 222
578.750372 -253.131580 2891.209602 162 195 233
705.727005 -331.118178 3433.898544 73 102 139
1010.966110 -567.818975 4766.083908 55 74 95
600.181866 -276.992607 2971.162796 133 176 215
815.039635 -425.617599 3752.123642 67 87 109
866.781807 -435.248995 3919.408035 133 156 179
1231.089401 -680.906391 5365.721893 62 79 100
645.698309 -280.813694 2955.875015 22 46 73
641.658497 -271.029687 2938.731003 142 174 201
650.149870 -291.860795 2971.625519 35 70 100
640.070534 -264.450002 2920.652771 28 54 77
605.256367 -234.672999 2777.458382 195 228 249
624.391651 -245.774007 2831.830597 19 59 87
1210.832119 -693.704176 5125.034714 32 44 59
1210.832119 -693.704176 5125.034714 32 44 59
668.474245 -302.019787 2941.804123 144 175 205
917.501736 -456.686878 3887.255859 25 38 56
884.852600 -452.574682 3752.162552 87 105 127
1169.088268 -700.664663 4825.323868 63 75 90
638.179016 -251.380277 2775.555420 91 110 134
644.902086 -255.544877 2781.931877 210 234 250
991.533947 -526.621675 4046.296692 84 102 123
692.388344 -283.215594 2926.615143 14 25 53
608.381510 -239.793921 2596.513557 136 168 210
699.646759 -276.267624 2904.399872 54 85 118
703.175354 -283.611012 2903.853416 146 172 203
916.377449 -427.035952 3675.226974 36 55 74
1281.173229 -729.874945 4951.975632 184 203 219
690.506029 -271.582437 2783.517456 6 27 55
709.206343 -283.709073 2848.749542 128 156 186
575.069952 -214.290285 2366.858292 126 150 180
534.011173 -167.784715 2211.086273 61 81 101
721.883821 -295.557046 2859.350777 183 212 240
942.209721 -428.665638 3621.260452 69 94 121
865.610027 -389.164400 3347.888184 142 174 211
541.308165 -167.695785 2210.671425 58 84 111
861.652756 -363.882542 3288.099289 70 95 124
587.552881 -205.418301 2338.633537 58 80 97
587.552881 -205.418301 2338.633537 58 80 97
881.015968 -370.089841 3302.692032 62 95 126
570.539045 -185.456431 2252.828407 112 133 154
448.221779 -114.561725 1843.151665 136 166 195
448.221779 -114.561725 1843.151665 136 166 195
1165.569305 -557.393360 4201.555252 121 154 194
1131.158543 -528.279352 4069.201660 102 133 169
608.988142 -227.307105 2348.609924 32 48 67
1180.165863 -574.096346 4180.766296 44 74 111
600.597525 -202.871513 2296.978951 41 56 76
939.418697 -387.639260 3387.962723 85 102 127
571.938276 -169.483876 2192.126465 46 70 95
554.535627 -157.316422 2118.643761 114 141 171
468.156767 -113.179147 1842.750549 91 115 146
581.240177 -170.753813 2178.912735 143 168 199
581.240177 -170.753813 2178.912735 143 168 199
1329.579449 -697.554731 4513.344574 189 205 224
577.428484 -166.636741 2154.951668 138 168 201
601.758242 -187.879634 2220.297432 92 109 129
1238.898277 -589.824677 4186.895370 129 159 194
1293.806267 -666.430044 4349.646378 187 206 227
620.085096 -205.391669 2265.950394 21 38 57
1077.795982 -450.136805 3674.760056 146 174 206
1326.552963 -689.459467 4430.651474 191 203 216
623.538017 -209.290457 2268.540382 87 105 125
622.153997 -198.083591 2247.913742 37 56 76
300.345874 -35.159889 1266.054726 97 127 157
596.652746 -170.788407 2164.218903 14 34 53
661.466599 -251.316142 2354.179192 44 67 85
1264.974499 -583.962107 4164.772415 115 150 190
617.430401 -191.544962 2207.004166 46 72 97
442.148113 -87.664497 1658.400154 47 83 116
1067.164898 -422.354794 3495.727539 106 134 168
1086.399937 -454.179049 3548.049545 107 143 184
1086.399937 -454.179049 3548.049545 107 143 184
1070.487309 -438.865662 3488.948822 28 54 85
570.021248 -140.667331 2023.282051 70 98 133
655.516195 -228.956556 2268.368340 135 164 197
605.054712 -161.074507 2113.867188 118 147 171
687.239218 -266.362929 2350.815773 58 81 112
645.607758 -211.806202 2218.102074 50 69 90
639.731979 -196.708214 2196.334076 32 51 77
675.056314 -236.601710 2286.455727 35 56 76
691.539049 -269.174027 2330.970383 147 178 220
1087.082863 -469.635630 3456.446838 48 83 122
640.601110 -196.126091 2172.802353 136 168 198
640.601110 -196.126091 2172.802353 136 168 198
646.336031 -198.805392 2180.277634 78 114 144
696.032953 -276.205420 2315.690994 116 142 174
649.946642 -204.413795 2184.533501 133 160 187
711.181355 -280.705786 2355.333328 116 142 174
1134.731674 -496.005821 3545.481873 120 159 198
621.935511 -168.501675 2103.803635 98 122 146
628.322411 -162.746239 2110.748482 89 113 136
1107.988262 -442.806149 3445.047379 33 69 111
1107.988262 -442.806149 3445.047379 33 69 111
711.657476 -275.262141 2337.968063 45 70 100
1215.626335 -542.620373 3733.180618 69 99 138
656.091452 -195.441043 2178.174973 41 61 85
1225.911903 -538.492918 3757.011032 147 176 214
665.247011 -211.862969 2200.222397 113 138 165
665.247011 -211.862969 2200.222397 113 138 165
686.447811 -242.608333 2257.785034 28 50 70
1128.893471 -467.777109 3476.025391 136 176 218
1230.941296 -535.841131 3745.488358 35 64 103
1126.256180 -453.099346 3446.594620 138 172 214
1132.220554 -456.080151 3412.117004 28 62 103
1141.484642 -452.170849 3433.486557 145 180 220
1141.484642 -452.170849 3433.486557 145 180 220
1132.298946 -438.336754 3373.049927 26 59 99
1228.063393 -542.999506 3615.049362 106 137 170
1231.376648 -544.254398 3623.466492 106 137 170
1134.941959 -447.898531 3366.572189 153 190 232
1134.941959 -447.898531 3366.572189 153 190 232
-1128.142643 -415.868998 3755.045319 114 144 183
-1245.901299 -617.514467 4135.111237 134 156 172
-978.649998 -309.614730 3383.472443 70 98 132
-1243.155766 -829.779911 4339.142990 120 133 143
-878.620911 -297.553945 3275.081635 143 177 217
-881.267357 -322.030020 3286.810684 133 167 205
-868.397617 -300.183368 3261.862183 57 92 130
-845.923996 -301.574779 3260.485840 134 171 209
-845.923996 -301.574779 3260.485840 134 171 209
-1226.204395 -675.167179 4561.421967 141 161 178
-856.690407 -302.654862 3349.936295 42 78 115
-866.832924 -310.986114 3406.867981 115 150 189
-1018.051052 -390.553069 3954.493332 118 147 180
-978.664589 -377.260780 3965.123749 112 142 173
-1188.232899 -711.701488 4908.616638 79 105 124
-1050.412655 -441.033888 4445.613861 118 149 187
-1228.314495 -952.815628 5232.642365 130 141 151
-1215.233898 -760.976410 5478.148651 59 88 127
-1228.003597 -808.055115 5771.854782 151 170 184
-1095.823288 -542.540598 5544.913101 45 81 117
-1133.006096 -547.580910 5726.056671 135 174 212
-1119.910049 -573.593807 5905.604935 112 171 203
-138.672698 -27.649310 1200.860310 171 198 221
-1101.091480 -595.063782 5933.162689 112 215 240
-1036.431408 -582.303715 5871.427155 36 50 67
-142.959881 -44.030043 1325.465584 180 202 223
-300.885701 -302.707791 2252.542877 58 88 127
-986.586475 -596.866083 6220.265961 117 145 171
-927.617550 -602.324772 5948.916245 216 232 245
-941.253853 -817.854786 7063.517761 124 159 193
-977.443123 -887.382984 7380.207062 124 158 197
-970.829582 -888.875675 7587.606812 9 37 67
-857.131100 -697.035217 6954.248810 91 123 154
-878.843689 -802.428436 7186.722565 82 122 164
-1143.608952 -1291.171074 11335.952759 77 46 31
-1026.098347 -1237.457752 10579.673767 84 110 132
-1042.452240 -1287.870407 11133.065796 42 68 92
-912.950611 -1108.549023 9962.110138 101 131 165
-783.807707 -964.726257 9014.917755 151 184 215
-30.692768 -30.036652 1209.972477 116 144 170
-30.692768 -30.036652 1209.972477 116 144 170
-212.655044 -713.934517 6474.894714 166 194 221
-0.062007 -37.560675 1264.360046 113 145 173
8.631275 -26.622197 1195.511532 146 174 201
318.662930 -1318.666649 9690.259552 238 248 252
35.739920 -51.594180 1374.642944 167 192 217
37.029639 -54.843628 1389.994621 164 190 213
302.690172 -1049.428368 8120.256042 127 145 154
496.666002 -1701.292610 12061.602020 52 73 81
496.666002 -1701.292610 12061.602020 52 73 81
513.411331 -1669.995117 11846.985626 190 210 219
75.157559 -116.037655 1874.968147 97 125 150
607.709599 -1665.687370 11905.074310 192 209 221
106.986201 -100.642395 1736.217117 106 136 163
909.928036 -1339.216709 11054.120636 184 213 243
821.286964 -1146.554279 9746.279144 136 167 201
760.975885 -1019.146442 8689.949036 58 82 109
109.567940 -72.594982 1571.944523 150 186 222
956.706429 -1327.445602 10163.435364 166 195 221
804.338169 -1249.898624 8554.206848 193 210 223
82.072419 -23.240741 1177.652836 88 119 150
898.093414 -1058.362865 8217.950439 52 86 120
898.093414 -1058.362865 8217.950439 52 86 120
1410.058880 -1553.786182 12027.164459 55 84 120
873.590183 -837.605572 7507.638550 168 193 217
1139.000130 -1134.695339 8771.682739 37 71 119
1115.640926 -1037.054348 8578.291321 33 59 85
534.611511 -438.319540 4309.930801 13 33 54
1283.568096 -1208.591652 9327.171326 39 69 101
1269.451809 -1175.074768 8823.552704 48 72 98
1269.451809 -1175.074768 8823.552704 48 72 98
412.558126 -287.305641 3169.734955 46 75 105
969.017792 -770.591879 6789.361572 172 197 223
483.126688 -334.663916 3546.484375 105 138 175
1250.111771 -1094.838142 8400.453949 40 64 85
1250.111771 -1094.838142 8400.453949 40 64 85
420.197058 -275.845265 3095.062065 98 127 152
794.486237 -587.494946 5385.179520 86 105 126
251.744080 -122.733939 1975.051498 112 141 169
457.036638 -291.570330 3150.589371 55 83 114
489.918900 -312.567782 3278.820419 43 68 95
1440.112114 -1038.149071 8574.333191 132 155 176
467.062235 -286.904693 3086.582565 142 169 194
127.986932 -27.223206 1189.015770 44 69 100
453.891659 -247.695303 2921.751785 52 80 113
130.944622 -21.633452 1151.745510 103 126 157
528.921032 -299.251676 3155.315590 155 186 215
540.709639 -323.094797 3172.746468 59 85 112
516.704702 -265.973783 3011.349106 44 65 89
555.898476 -310.802674 3153.387451 162 190 219
538.978863 -283.010054 3072.284889 23 43 62
533.148289 -253.672123 3019.278336 142 151 165
792.799664 -426.721382 4212.786484 76 96 117
951.838017 -568.857527 4911.209106 26 45 65
603.393030 -313.044882 3262.013626 29 64 98
1637.691498 -997.941589 7710.074615 17 37 65
422.062445 -174.860096 2331.252098 54 82 109
558.918810 -249.028611 2901.716805 164 199 234
1296.214008 -760.337830 5967.989731 21 45 73
812.713528 -419.116783 3914.106750 143 167 191
643.002987 -303.237486 3184.412766 139 171 209
777.950239 -383.214283 3731.500626 119 147 177
454.171324 -182.708788 2375.649643 20 39 64
612.860203 -281.377292 3023.619080 129 173 212
453.077316 -177.484584 2353.009987 10 27 48
617.047596 -286.307859 3020.297241 114 149 180
518.822765 -215.398741 2616.481781 147 180 214
1207.499218 -702.186823 5392.462540 124 153 183
614.891720 -265.518546 2986.092567 118 161 206
626.408625 -270.044541 2959.532166 164 203 234
622.536707 -261.022019 2920.593262 27 65 96
429.993868 -156.215727 2168.573570 97 124 153
591.950846 -229.896307 2760.254860 7 22 44
1079.560375 -607.504749 4626.342392 190 202 219
599.391890 -237.433362 2779.899025 32 65 99
1100.609684 -659.378195 4683.286285 188 202 217
880.078888 -442.574835 3792.921066 33 50 71
441.416025 -156.415272 2146.379471 54 77 99
1116.638851 -672.538662 4633.504105 74 86 101
1135.701466 -682.924652 4701.561356 74 86 101
873.498821 -438.102722 3724.279785 36 48 63
830.933189 -386.664009 3562.207413 158 184 207
872.228050 -428.353167 3714.181900 87 105 126
1145.877457 -643.929958 4668.082428 49 62 78
1161.031723 -656.486225 4668.578339 32 50 71
642.518854 -252.912641 2790.889549 92 112 137
1199.662685 -683.050632 4719.165039 89 115 136
687.584209 -275.851798 2896.780777 201 220 230
470.178080 -141.858745 2046.432686 62 84 110
863.745403 -358.425355 3338.449860 62 85 113
433.923292 -120.582223 1912.872124 60 89 121
541.315413 -175.947583 2258.473969 31 45 62
581.225777 -215.615487 2387.060165 112 141 167
1240.497017 -673.431206 4499.604034 191 204 220
1145.900440 -542.662621 4104.259109 25 53 90
1223.085022 -664.456463 4340.255356 190 203 217
542.141390 -161.299849 2171.862030 41 68 97
746.723270 -298.529983 2801.456261 66 93 124
746.126366 -301.462555 2799.056816 74 102 134
539.879751 -156.447923 2142.634201 66 87 113
573.083639 -174.218416 2205.051041 166 192 218
1291.697979 -653.751612 4345.758438 113 149 182
730.945635 -291.300154 2651.849747 33 56 81
1197.995758 -561.321783 4014.854813 57 90 120
1057.421875 -438.895130 3567.180634 135 167 205
536.068964 -145.380235 2044.940186 65 92 122
1165.729713 -531.769514 3859.016800 84 119 157
1165.729713 -531.769514 3859.016800 84 119 157
598.861837 -181.791449 2221.134758 101 120 139
568.763828 -159.797955 2122.198296 48 75 105
568.763828 -159.797955 2122.198296 48 75 105
666.409206 -263.840628 2386.869621 58 83 109
607.093525 -182.399845 2210.597801 140 163 185
607.093525 -182.399845 2210.597801 140 163 185
655.449915 -239.306784 2302.628517 29 46 64
1090.473938 -476.423264 3479.911804 51 87 125
1090.473938 -476.423264 3479.911804 51 87 125
1054.867554 -470.778370 3379.458618 115 156 194
1099.366856 -439.666367 3422.085571 32 68 108
